-320.000000 1088.000000 344.000000
-320.749532 1089.798876 343.550281
-321.499063 1091.597752 343.100562
-322.248595 1093.396628 342.650843
-322.998127 1095.195504 342.201124
-323.747658 1096.994380 341.751405
-324.497190 1098.793256 341.301686
-325.246722 1100.592132 340.851967
-325.996254 1102.391008 340.402248
-326.745785 1104.189884 339.952529
-327.495317 1105.988761 339.502810
-328.244849 1107.787637 339.053091
-328.994380 1109.586513 338.603372
-329.743912 1111.385389 338.153653
-330.493444 1113.184265 337.703934
-331.242975 1114.983141 337.254215
-331.992507 1116.782017 336.804496
-332.742039 1118.580893 336.354777
-333.491570 1120.379769 335.905058
-334.241102 1122.178645 335.455339
-334.990634 1123.977521 335.005620
-335.740165 1125.776397 334.555901
-336.489697 1127.575273 334.106182
-337.239229 1129.374149 333.656463
-337.988761 1131.173025 333.206744
-338.738292 1132.971901 332.757025
-339.487824 1134.770777 332.307306
-340.237356 1136.569653 331.857587
-340.986887 1138.368530 331.407868
-341.736419 1140.167406 330.958149
-342.485951 1141.966282 330.508430
-343.235482 1143.765158 330.058711
-343.985014 1145.564034 329.608992
-344.734546 1147.362910 329.159273
-345.484077 1149.161786 328.709554
-346.233609 1150.960662 328.259835
-346.983141 1152.759538 327.810116
-347.732672 1154.558414 327.360397
-348.482204 1156.357290 326.910677
-349.231736 1158.156166 326.460958
-349.981268 1159.955042 326.011239
-350.730799 1161.753918 325.561520
-351.480331 1163.552794 325.111801
-352.229863 1165.351670 324.662082
-352.979394 1167.150546 324.212363
-353.728926 1168.949422 323.762644
-354.478458 1170.748298 323.312925
-355.227989 1172.547175 322.863206
-355.977521 1174.346051 322.413487
-356.727053 1176.144927 321.963768
-357.476584 1177.943803 321.514049
-358.226116 1179.742679 321.064330
-358.975648 1181.541555 320.614611
-360.000000 1184.000000 320.000000
-360.000000 1184.000000 318.000000
-360.000000 1184.000000 316.000000
-360.000000 1184.000000 314.000000
-360.000000 1184.000000 312.000000
-360.000000 1184.000000 310.000000
-360.000000 1184.000000 308.000000
-360.000000 1184.000000 304.000000
-360.000000 1184.000000 302.000000
-360.000000 1184.000000 300.000000
-360.000000 1184.000000 298.000000
-360.000000 1184.000000 296.000000
-360.000000 1184.000000 294.000000
-360.000000 1184.000000 292.000000
-360.000000 1184.000000 290.000000
-360.000000 1184.000000 288.000000
-360.000000 1184.000000 286.000000
-360.000000 1184.000000 284.000000
-360.000000 1184.000000 282.000000
-360.000000 1184.000000 280.000000
-360.000000 1184.000000 278.000000
-360.000000 1184.000000 276.000000
-360.000000 1184.000000 274.000000
-360.000000 1184.000000 272.000000
-360.000000 1184.000000 270.000000
-360.000000 1184.000000 268.000000
-360.000000 1184.000000 266.000000
-360.000000 1184.000000 264.000000
-360.000000 1184.000000 262.000000
-360.000000 1184.000000 260.000000
-360.000000 1184.000000 258.000000
-360.000000 1184.000000 256.000000
-360.000000 1184.000000 254.000000
-360.000000 1184.000000 252.000000
-360.000000 1184.000000 250.000000
-360.000000 1184.000000 248.000000
-360.000000 1184.000000 246.000000
-360.000000 1184.000000 244.000000
-360.000000 1184.000000 240.000000
-360.000000 1184.000000 238.000000
-360.000000 1184.000000 236.000000
-360.000000 1184.000000 234.000000
-360.000000 1184.000000 232.000000
-360.000000 1184.000000 230.000000
-360.000000 1184.000000 228.000000
-360.000000 1184.000000 224.000000
-361.006584 1182.274428 223.904135
-362.013167 1180.548856 223.808270
-363.019751 1178.823284 223.712405
-364.026335 1177.097712 223.616540
-365.032919 1175.372139 223.520674
-366.039502 1173.646567 223.424809
-367.046086 1171.920995 223.328944
-368.052670 1170.195423 223.233079
-369.059254 1168.469851 223.137214
-370.065837 1166.744279 223.041349
-371.072421 1165.018707 222.945484
-372.079005 1163.293135 222.849619
-373.085588 1161.567563 222.753753
-374.092172 1159.841991 222.657888
-375.098756 1158.116418 222.562023
-376.105340 1156.390846 222.466158
-377.111923 1154.665274 222.370293
-378.118507 1152.939702 222.274428
-379.125091 1151.214130 222.178563
-380.131675 1149.488558 222.082698
-381.138258 1147.762986 221.986833
-382.144842 1146.037414 221.890967
-383.151426 1144.311842 221.795102
-384.158009 1142.586270 221.699237
-385.164593 1140.860697 221.603372
-386.171177 1139.135125 221.507507
-387.177761 1137.409553 221.411642
-388.184344 1135.683981 221.315777
-389.190928 1133.958409 221.219912
-390.197512 1132.232837 221.124046
-391.204096 1130.507265 221.028181
-392.210679 1128.781693 220.932316
-393.217263 1127.056121 220.836451
-394.223847 1125.330549 220.740586
-395.230430 1123.604976 220.644721
-396.237014 1121.879404 220.548856
-397.243598 1120.153832 220.452991
-398.250182 1118.428260 220.357126
-399.256765 1116.702688 220.261260
-400.263349 1114.977116 220.165395
-401.269933 1113.251544 220.069530
-402.276517 1111.525972 219.973665
-403.283100 1109.800400 219.877800
-404.289684 1108.074827 219.781935
-405.296268 1106.349255 219.686070
-406.302851 1104.623683 219.590205
-407.309435 1102.898111 219.494340
-408.316019 1101.172539 219.398474
-409.322603 1099.446967 219.302609
-410.329186 1097.721395 219.206744
-411.335770 1095.995823 219.110879
-412.342354 1094.270251 219.015014
-413.348938 1092.544679 218.919149
-414.355521 1090.819106 218.823284
-415.362105 1089.093534 218.727419
-416.368689 1087.367962 218.631553
-417.375272 1085.642390 218.535688
-418.381856 1083.916818 218.439823
-419.388440 1082.191246 218.343958
-420.395024 1080.465674 218.248093
-421.401607 1078.740102 218.152228
-422.408191 1077.014530 218.056363
-423.414775 1075.288958 217.960498
-424.421358 1073.563385 217.864633
-425.427942 1071.837813 217.768767
-426.434526 1070.112241 217.672902
-427.441110 1068.386669 217.577037
-428.447693 1066.661097 217.481172
-429.454277 1064.935525 217.385307
-430.460861 1063.209953 217.289442
-431.467445 1061.484381 217.193577
-432.474028 1059.758809 217.097712
-433.480612 1058.033237 217.001846
-434.487196 1056.307664 216.905981
-435.493779 1054.582092 216.810116
-436.500363 1052.856520 216.714251
-437.506947 1051.130948 216.618386
-438.513531 1049.405376 216.522521
-439.520114 1047.679804 216.426656
-440.526698 1045.954232 216.330791
-441.533282 1044.228660 216.234926
-442.539866 1042.503088 216.139060
-444.000000 1040.000000 216.000000
-444.000000 1038.004430 216.133038
-444.000000 1036.008859 216.266076
-444.000000 1034.013289 216.399114
-444.000000 1032.017719 216.532152
-444.000000 1030.022148 216.665190
-444.000000 1028.026578 216.798228
-444.000000 1026.031008 216.931266
-444.000000 1024.035437 217.064304
-444.000000 1022.039867 217.197342
-444.000000 1020.044297 217.330380
-444.000000 1018.048727 217.463418
-444.000000 1016.053156 217.596456
-444.000000 1014.057586 217.729494
-444.000000 1012.062016 217.862532
-444.000000 1010.066445 217.995570
-444.000000 1008.070875 218.128608
-444.000000 1006.075305 218.261646
-444.000000 1004.079734 218.394684
-444.000000 1002.084164 218.527722
-444.000000 1000.088594 218.660760
-444.000000 998.093023 218.793798
-444.000000 996.097453 218.926836
-444.000000 994.101883 219.059874
-444.000000 992.106312 219.192913
-444.000000 990.110742 219.325951
-444.000000 988.115172 219.458989
-444.000000 986.119601 219.592027
-444.000000 984.124031 219.725065
-444.000000 982.128461 219.858103
-444.000000 980.132891 219.991141
-444.000000 978.137320 220.124179
-444.000000 976.141750 220.257217
-444.000000 974.146180 220.390255
-444.000000 972.150609 220.523293
-444.000000 970.155039 220.656331
-444.000000 968.159469 220.789369
-444.000000 966.163898 220.922407
-444.000000 964.168328 221.055445
-444.000000 962.172758 221.188483
-444.000000 960.177187 221.321521
-444.000000 958.181617 221.454559
-444.000000 956.186047 221.587597
-444.000000 954.190476 221.720635
-444.000000 952.194906 221.853673
-444.000000 950.199336 221.986711
-444.000000 948.203765 222.119749
-444.000000 946.208195 222.252787
-444.000000 944.212625 222.385825
-444.000000 942.217055 222.518863
-444.000000 940.221484 222.651901
-444.000000 938.225914 222.784939
-444.000000 936.230344 222.917977
-444.000000 934.234773 223.051015
-444.000000 932.239203 223.184053
-444.000000 930.243633 223.317091
-444.000000 928.248062 223.450129
-444.000000 926.252492 223.583167
-444.000000 924.256922 223.716205
-444.000000 922.261351 223.849243
-444.000000 920.000000 224.000000
-444.069161 918.409295 225.210319
-444.138322 916.818589 226.420639
-444.207483 915.227884 227.630958
-444.276644 913.637178 228.841277
-444.345806 912.046473 230.051597
-444.414967 910.455767 231.261916
-444.484128 908.865062 232.472235
-444.553289 907.274356 233.682555
-444.622450 905.683651 234.892874
-444.691611 904.092946 236.103194
-444.760772 902.502240 237.313513
-444.829933 900.911535 238.523832
-444.899094 899.320829 239.734152
-444.968255 897.730124 240.944471
-445.037417 896.139418 242.154790
-445.106578 894.548713 243.365110
-445.175739 892.958008 244.575429
-445.244900 891.367302 245.785748
-445.314061 889.776597 246.996068
-445.383222 888.185891 248.206387
-445.452383 886.595186 249.416706
-445.521544 885.004480 250.627026
-445.590705 883.413775 251.837345
-445.659867 881.823069 253.047665
-445.729028 880.232364 254.257984
-445.798189 878.641659 255.468303
-445.867350 877.050953 256.678623
-445.936511 875.460248 257.888942
-446.005672 873.869542 259.099261
-446.074833 872.278837 260.309581
-446.143994 870.688131 261.519900
-446.213155 869.097426 262.730219
-446.282317 867.506720 263.940539
-446.351478 865.916015 265.150858
-446.420639 864.325310 266.361177
-446.489800 862.734604 267.571497
-446.558961 861.143899 268.781816
-446.628122 859.553193 269.992136
-446.697283 857.962488 271.202455
-446.766444 856.371782 272.412774
-446.835605 854.781077 273.623094
-446.904766 853.190372 274.833413
-446.973928 851.599666 276.043732
-447.043089 850.008961 277.254052
-447.112250 848.418255 278.464371
-447.181411 846.827550 279.674690
-447.250572 845.236844 280.885010
-447.319733 843.646139 282.095329
-447.388894 842.055433 283.305648
-447.458055 840.464728 284.515968
-447.527216 838.874023 285.726287
-447.596378 837.283317 286.936607
-447.665539 835.692612 288.146926
-447.734700 834.101906 289.357245
-447.803861 832.511201 290.567565
-447.873022 830.920495 291.777884
-447.942183 829.329790 292.988203
-448.011344 827.739084 294.198523
-448.080505 826.148379 295.408842
-448.149666 824.557674 296.619161
-448.218827 822.966968 297.829481
-448.287989 821.376263 299.039800
-448.357150 819.785557 300.250119
-448.426311 818.194852 301.460439
-448.495472 816.604146 302.670758
-448.564633 815.013441 303.881078
-448.633794 813.422736 305.091397
-448.702955 811.832030 306.301716
-448.772116 810.241325 307.512036
-448.841277 808.650619 308.722355
-448.910439 807.059914 309.932674
-448.979600 805.469208 311.142994
-449.048761 803.878503 312.353313
-449.117922 802.287797 313.563632
-449.187083 800.697092 314.773952
-449.256244 799.106387 315.984271
-449.325405 797.515681 317.194590
-449.394566 795.924976 318.404910
-449.463727 794.334270 319.615229
-449.532888 792.743565 320.825549
-449.602050 791.152859 322.035868
-449.671211 789.562154 323.246187
-449.740372 787.971448 324.456507
-449.809533 786.380743 325.666826
-449.878694 784.790038 326.877145
-449.947855 783.199332 328.087465
-450.017016 781.608627 329.297784
-450.086177 780.017921 330.508103
-450.155338 778.427216 331.718423
-450.224500 776.836510 332.928742
-450.293661 775.245805 334.139061
-450.362822 773.655100 335.349381
-450.431983 772.064394 336.559700
-450.501144 770.473689 337.770020
-450.570305 768.882983 338.980339
-450.639466 767.292278 340.190658
-450.708627 765.701572 341.400978
-450.777788 764.110867 342.611297
-450.846950 762.520161 343.821616
-450.916111 760.929456 345.031936
-450.985272 759.338751 346.242255
-451.054433 757.748045 347.452574
-451.123594 756.157340 348.662894
-451.192755 754.566634 349.873213
-451.261916 752.975929 351.083532
-451.331077 751.385223 352.293852
-451.400238 749.794518 353.504171
-451.469399 748.203812 354.714491
-451.538561 746.613107 355.924810
-451.607722 745.022402 357.135129
-451.676883 743.431696 358.345449
-451.746044 741.840991 359.555768
-451.815205 740.250285 360.766087
-451.884366 738.659580 361.976407
-452.000000 736.000000 364.000000
-452.000000 734.001478 363.923134
-452.000000 732.002955 363.846268
-452.000000 730.004433 363.769401
-452.000000 728.005911 363.692535
-452.000000 726.007388 363.615669
-452.000000 724.008866 363.538803
-452.000000 722.010344 363.461936
-452.000000 720.011821 363.385070
-452.000000 718.013299 363.308204
-452.000000 716.014777 363.231338
-452.000000 714.016254 363.154471
-452.000000 712.017732 363.077605
-452.000000 710.019209 363.000739
-452.000000 708.020687 362.923873
-452.000000 706.022165 362.847006
-452.000000 704.023642 362.770140
-452.000000 702.025120 362.693274
-452.000000 700.026598 362.616408
-452.000000 698.028075 362.539541
-452.000000 696.029553 362.462675
-452.000000 694.031031 362.385809
-452.000000 692.032508 362.308943
-452.000000 690.033986 362.232076
-452.000000 688.035464 362.155210
-452.000000 686.036941 362.078344
-452.000000 684.038419 362.001478
-452.000000 682.039897 361.924611
-452.000000 680.041374 361.847745
-452.000000 678.042852 361.770879
-452.000000 676.044330 361.694013
-452.000000 674.045807 361.617146
-452.000000 672.047285 361.540280
-452.000000 670.048762 361.463414
-452.000000 668.050240 361.386548
-452.000000 666.051718 361.309681
-452.000000 664.053195 361.232815
-452.000000 662.054673 361.155949
-452.000000 660.056151 361.079083
-452.000000 658.057628 361.002216
-452.000000 656.059106 360.925350
-452.000000 654.060584 360.848484
-452.000000 652.062061 360.771618
-452.000000 650.063539 360.694751
-452.000000 648.065017 360.617885
-452.000000 646.066494 360.541019
-452.000000 644.067972 360.464153
-452.000000 642.069450 360.387287
-452.000000 640.070927 360.310420
-452.000000 638.072405 360.233554
-452.000000 636.073883 360.156688
-452.000000 634.075360 360.079822
-452.000000 632.076838 360.002955
-452.000000 630.078315 359.926089
-452.000000 628.079793 359.849223
-452.000000 626.081271 359.772357
-452.000000 624.082748 359.695490
-452.000000 622.084226 359.618624
-452.000000 620.085704 359.541758
-452.000000 618.087181 359.464892
-452.000000 616.088659 359.388025
-452.000000 614.090137 359.311159
-452.000000 612.091614 359.234293
-452.000000 610.093092 359.157427
-452.000000 608.094570 359.080560
-452.000000 606.096047 359.003694
-452.000000 604.097525 358.926828
-452.000000 602.099003 358.849962
-452.000000 600.100480 358.773095
-452.000000 598.101958 358.696229
-452.000000 596.103436 358.619363
-452.000000 594.104913 358.542497
-452.000000 592.106391 358.465630
-452.000000 590.107869 358.388764
-452.000000 588.109346 358.311898
-452.000000 586.110824 358.235032
-452.000000 584.112301 358.158165
-452.000000 582.113779 358.081299
-452.000000 580.115257 358.004433
-452.000000 578.116734 357.927567
-452.000000 576.118212 357.850700
-452.000000 574.119690 357.773834
-452.000000 572.121167 357.696968
-452.000000 570.122645 357.620102
-452.000000 568.124123 357.543235
-452.000000 566.125600 357.466369
-452.000000 564.127078 357.389503
-452.000000 562.128556 357.312637
-452.000000 560.130033 357.235771
-452.000000 558.131511 357.158904
-452.000000 556.132989 357.082038
-452.000000 554.134466 357.005172
-452.000000 552.135944 356.928306
-452.000000 550.137422 356.851439
-452.000000 548.138899 356.774573
-452.000000 546.140377 356.697707
-452.000000 544.141854 356.620841
-452.000000 542.143332 356.543974
-452.000000 540.144810 356.467108
-452.000000 538.146287 356.390242
-452.000000 536.147765 356.313376
-452.000000 534.149243 356.236509
-452.000000 532.150720 356.159643
-452.000000 530.152198 356.082777
-452.000000 528.000000 356.000000
-452.000000 526.000000 356.000000
-452.000000 524.000000 356.000000
-452.000000 522.000000 356.000000
-452.000000 520.000000 356.000000
-452.000000 518.000000 356.000000
-452.000000 516.000000 356.000000
-452.000000 514.000000 356.000000
-452.000000 512.000000 356.000000
-452.000000 510.000000 356.000000
-452.000000 508.000000 356.000000
-452.000000 506.000000 356.000000
-452.000000 504.000000 356.000000
-452.000000 502.000000 356.000000
-452.000000 500.000000 356.000000
-452.000000 498.000000 356.000000
-452.000000 496.000000 356.000000
-452.000000 494.000000 356.000000
-452.000000 492.000000 356.000000
-452.000000 490.000000 356.000000
-452.000000 488.000000 356.000000
-452.000000 486.000000 356.000000
-452.000000 484.000000 356.000000
-452.000000 482.000000 356.000000
-452.000000 480.000000 356.000000
-452.000000 478.000000 356.000000
-452.000000 476.000000 356.000000
-452.000000 474.000000 356.000000
-452.000000 472.000000 356.000000
-452.000000 470.000000 356.000000
-452.000000 468.000000 356.000000
-452.000000 466.000000 356.000000
-452.000000 464.000000 356.000000
-452.000000 462.000000 356.000000
-452.000000 460.000000 356.000000
-452.000000 458.000000 356.000000
-452.000000 456.000000 356.000000
-452.000000 454.000000 356.000000
-452.000000 452.000000 356.000000
-452.000000 448.000000 356.000000
-452.000000 446.000000 356.000000
-452.000000 444.000000 356.000000
-452.000000 442.000000 356.000000
-452.000000 440.000000 356.000000
-452.000000 438.000000 356.000000
-452.000000 436.000000 356.000000
-452.000000 434.000000 356.000000
-452.000000 432.000000 356.000000
-452.000000 430.000000 356.000000
-452.000000 428.000000 356.000000
-452.000000 426.000000 356.000000
-452.000000 424.000000 356.000000
-452.000000 422.000000 356.000000
-452.000000 420.000000 356.000000
-452.000000 418.000000 356.000000
-452.000000 416.000000 356.000000
-452.000000 414.000000 356.000000
-452.000000 412.000000 356.000000
-452.000000 410.000000 356.000000
-452.000000 408.000000 356.000000
-452.000000 406.000000 356.000000
-452.000000 404.000000 356.000000
-452.000000 402.000000 356.000000
-452.000000 400.000000 356.000000
-452.000000 398.000000 356.000000
-452.000000 396.000000 356.000000
-452.000000 394.000000 356.000000
-452.000000 392.000000 356.000000
-452.000000 390.000000 356.000000
-452.000000 388.000000 356.000000
-452.000000 386.000000 356.000000
-452.000000 384.000000 356.000000
-452.000000 382.000000 356.000000
-452.000000 380.000000 356.000000
-452.000000 378.000000 356.000000
-452.000000 376.000000 356.000000
-452.000000 374.000000 356.000000
-452.000000 372.000000 356.000000
-452.000000 370.000000 356.000000
-452.000000 368.000000 356.000000
-452.000000 366.000000 356.000000
-452.000000 364.000000 356.000000
-452.000000 362.000000 356.000000
-452.000000 360.000000 356.000000
-452.000000 358.000000 356.000000
-452.000000 356.000000 356.000000
-452.000000 354.000000 356.000000
-452.000000 352.000000 356.000000
-452.000000 350.000000 356.000000
-452.000000 348.000000 356.000000
-452.000000 346.000000 356.000000
-452.000000 344.000000 356.000000
-452.000000 342.000000 356.000000
-452.000000 340.000000 356.000000
-452.000000 338.000000 356.000000
-452.000000 336.000000 356.000000
-452.000000 334.000000 356.000000
-452.000000 332.000000 356.000000
-452.000000 330.000000 356.000000
-452.000000 328.000000 356.000000
-452.000000 326.000000 356.000000
-452.000000 324.000000 356.000000
-452.000000 320.000000 356.000000
-452.000000 318.000000 356.000000
-452.000000 316.000000 356.000000
-452.000000 314.000000 356.000000
-452.000000 312.000000 356.000000
-452.000000 310.000000 356.000000
-452.000000 308.000000 356.000000
-452.000000 306.000000 356.000000
-452.000000 304.000000 356.000000
-452.000000 302.000000 356.000000
-452.000000 300.000000 356.000000
-452.000000 298.000000 356.000000
-452.000000 296.000000 356.000000
-452.000000 294.000000 356.000000
-452.000000 292.000000 356.000000
-452.000000 290.000000 356.000000
-452.000000 288.000000 356.000000
-452.000000 286.000000 356.000000
-452.000000 284.000000 356.000000
-452.000000 282.000000 356.000000
-452.000000 280.000000 356.000000
-452.000000 278.000000 356.000000
-452.000000 276.000000 356.000000
-452.000000 274.000000 356.000000
-452.000000 272.000000 356.000000
-452.000000 270.000000 356.000000
-452.000000 268.000000 356.000000
-452.000000 266.000000 356.000000
-452.000000 264.000000 356.000000
-452.000000 262.000000 356.000000
-452.000000 260.000000 356.000000
-452.000000 258.000000 356.000000
-452.000000 256.000000 356.000000
-452.000000 254.000000 356.000000
-452.000000 252.000000 356.000000
-452.000000 250.000000 356.000000
-452.000000 248.000000 356.000000
-452.000000 246.000000 356.000000
-452.000000 244.000000 356.000000
-452.000000 242.000000 356.000000
-452.000000 240.000000 356.000000
-452.000000 238.000000 356.000000
-452.000000 236.000000 356.000000
-452.000000 234.000000 356.000000
-452.000000 232.000000 356.000000
-452.000000 230.000000 356.000000
-452.000000 228.000000 356.000000
-452.000000 226.000000 356.000000
-452.000000 224.000000 356.000000
-452.000000 222.000000 356.000000
-452.000000 220.000000 356.000000
-452.000000 218.000000 356.000000
-452.000000 216.000000 356.000000
-452.000000 214.000000 356.000000
-452.000000 212.000000 356.000000
-452.000000 210.000000 356.000000
-452.000000 208.000000 356.000000
-452.000000 206.000000 356.000000
-452.000000 204.000000 356.000000
-452.000000 202.000000 356.000000
-452.000000 200.000000 356.000000
-452.000000 198.000000 356.000000
-452.000000 196.000000 356.000000
-452.000000 194.000000 356.000000
-452.000000 192.000000 356.000000
-452.000000 190.000000 356.000000
-452.000000 188.000000 356.000000
-452.000000 186.000000 356.000000
-452.000000 184.000000 356.000000
-452.000000 182.000000 356.000000
-452.000000 180.000000 356.000000
-452.000000 178.000000 356.000000
-452.000000 176.000000 356.000000
-452.000000 174.000000 356.000000
-452.000000 172.000000 356.000000
-452.000000 170.000000 356.000000
-452.000000 168.000000 356.000000
-452.000000 166.000000 356.000000
-452.000000 164.000000 356.000000
-452.000000 162.000000 356.000000
-452.000000 160.000000 356.000000
-452.000000 158.000000 356.000000
-452.000000 156.000000 356.000000
-452.000000 154.000000 356.000000
-452.000000 152.000000 356.000000
-452.000000 150.000000 356.000000
-452.000000 148.000000 356.000000
-452.000000 146.000000 356.000000
-452.000000 144.000000 356.000000
-452.000000 142.000000 356.000000
-452.000000 140.000000 356.000000
-452.000000 138.000000 356.000000
-452.000000 136.000000 356.000000
-452.000000 134.000000 356.000000
-452.000000 132.000000 356.000000
-452.000000 130.000000 356.000000
-452.000000 128.000000 356.000000
-452.000000 126.000000 356.000000
-452.000000 124.000000 356.000000
-452.000000 122.000000 356.000000
-452.000000 120.000000 356.000000
-452.000000 118.000000 356.000000
-452.000000 116.000000 356.000000
-452.000000 114.000000 356.000000
-452.000000 112.000000 356.000000
-452.000000 110.000000 356.000000
-452.000000 108.000000 356.000000
-452.000000 106.000000 356.000000
-452.000000 104.000000 356.000000
-452.000000 102.000000 356.000000
-452.000000 100.000000 356.000000
-452.000000 98.000000 356.000000
-452.000000 96.000000 356.000000
-452.000000 94.000000 356.000000
-452.000000 92.000000 356.000000
-452.000000 90.000000 356.000000
-452.000000 88.000000 356.000000
-452.000000 86.000000 356.000000
-452.000000 84.000000 356.000000
-452.000000 82.000000 356.000000
-452.000000 80.000000 356.000000
-452.000000 78.000000 356.000000
-452.000000 76.000000 356.000000
-452.000000 74.000000 356.000000
-452.000000 72.000000 356.000000
-452.000000 70.000000 356.000000
-452.000000 68.000000 356.000000
-452.000000 66.000000 356.000000
-452.000000 64.000000 356.000000
-452.000000 62.000000 356.000000
-452.000000 60.000000 356.000000
-452.000000 58.000000 356.000000
-452.000000 56.000000 356.000000
-452.000000 54.000000 356.000000
-452.000000 52.000000 356.000000
-452.000000 50.000000 356.000000
-452.000000 48.000000 356.000000
-452.000000 46.000000 356.000000
-452.000000 44.000000 356.000000
-452.000000 42.000000 356.000000
-452.000000 40.000000 356.000000
-452.000000 38.000000 356.000000
-452.000000 36.000000 356.000000
-452.000000 34.000000 356.000000
-452.000000 32.000000 356.000000
-452.000000 30.000000 356.000000
-452.000000 28.000000 356.000000
-452.000000 26.000000 356.000000
-452.000000 24.000000 356.000000
-452.000000 22.000000 356.000000
-452.000000 20.000000 356.000000
-452.000000 18.000000 356.000000
-452.000000 16.000000 356.000000
-452.000000 14.000000 356.000000
-452.000000 12.000000 356.000000
-452.000000 10.000000 356.000000
-452.000000 8.000000 356.000000
-452.000000 6.000000 356.000000
-452.000000 4.000000 356.000000
-452.000000 2.000000 356.000000
-452.000000 0.000000 356.000000
-452.000000 -2.000000 356.000000
-452.000000 -4.000000 356.000000
-452.000000 -6.000000 356.000000
-452.000000 -8.000000 356.000000
-452.000000 -10.000000 356.000000
-452.000000 -12.000000 356.000000
-452.000000 -14.000000 356.000000
-452.000000 -16.000000 356.000000
-452.000000 -18.000000 356.000000
-452.000000 -20.000000 356.000000
-452.000000 -22.000000 356.000000
-452.000000 -24.000000 356.000000
-452.000000 -26.000000 356.000000
-452.000000 -28.000000 356.000000
-452.000000 -30.000000 356.000000
-452.000000 -32.000000 356.000000
-452.000000 -34.000000 356.000000
-452.000000 -36.000000 356.000000
-452.000000 -38.000000 356.000000
-452.000000 -40.000000 356.000000
-452.000000 -42.000000 356.000000
-452.000000 -44.000000 356.000000
-452.000000 -46.000000 356.000000
-452.000000 -48.000000 356.000000
-452.000000 -50.000000 356.000000
-452.000000 -52.000000 356.000000
-452.000000 -54.000000 356.000000
-452.000000 -56.000000 356.000000
-452.000000 -58.000000 356.000000
-452.000000 -60.000000 356.000000
-452.000000 -64.000000 356.000000
-452.000000 -65.432942 354.604767
-452.000000 -66.865885 353.209533
-452.000000 -68.298827 351.814300
-452.000000 -69.731770 350.419067
-452.000000 -71.164712 349.023833
-452.000000 -72.597654 347.628600
-452.000000 -74.030597 346.233366
-452.000000 -75.463539 344.838133
-452.000000 -76.896481 343.442900
-452.000000 -78.329424 342.047666
-452.000000 -79.762366 340.652433
-452.000000 -81.195309 339.257200
-452.000000 -82.628251 337.861966
-452.000000 -84.061193 336.466733
-452.000000 -85.494136 335.071500
-452.000000 -86.927078 333.676266
-452.000000 -88.360020 332.281033
-452.000000 -89.792963 330.885799
-452.000000 -91.225905 329.490566
-452.000000 -92.658848 328.095333
-452.000000 -94.091790 326.700099
-452.000000 -95.524732 325.304866
-452.000000 -96.957675 323.909633
-452.000000 -98.390617 322.514399
-452.000000 -99.823559 321.119166
-452.000000 -101.256502 319.723932
-452.000000 -102.689444 318.328699
-452.000000 -104.122387 316.933466
-452.000000 -105.555329 315.538232
-452.000000 -106.988271 314.142999
-452.000000 -108.421214 312.747766
-452.000000 -109.854156 311.352532
-452.000000 -111.287098 309.957299
-452.000000 -112.720041 308.562066
-452.000000 -114.152983 307.166832
-452.000000 -115.585926 305.771599
-452.000000 -117.018868 304.376365
-452.000000 -118.451810 302.981132
-452.000000 -119.884753 301.585899
-452.000000 -121.317695 300.190665
-452.000000 -122.750637 298.795432
-452.000000 -124.183580 297.400199
-452.000000 -125.616522 296.004965
-452.000000 -127.049465 294.609732
-452.000000 -128.482407 293.214499
-452.000000 -129.915349 291.819265
-452.000000 -131.348292 290.424032
-452.000000 -132.781234 289.028798
-452.000000 -134.214176 287.633565
-452.000000 -135.647119 286.238332
-452.000000 -137.080061 284.843098
-452.000000 -138.513004 283.447865
-452.000000 -139.945946 282.052632
-452.000000 -141.378888 280.657398
-452.000000 -142.811831 279.262165
-452.000000 -144.244773 277.866931
-452.000000 -145.677715 276.471698
-452.000000 -147.110658 275.076465
-452.000000 -148.543600 273.681231
-452.000000 -149.976543 272.285998
-452.000000 -151.409485 270.890765
-452.000000 -152.842427 269.495531
-452.000000 -154.275370 268.100298
-452.000000 -155.708312 266.705065
-452.000000 -157.141254 265.309831
-452.000000 -158.574197 263.914598
-452.000000 -160.007139 262.519364
-452.000000 -161.440082 261.124131
-452.000000 -162.873024 259.728898
-452.000000 -164.305966 258.333664
-452.000000 -165.738909 256.938431
-452.000000 -167.171851 255.543198
-452.000000 -168.604793 254.147964
-452.000000 -170.037736 252.752731
-452.000000 -171.470678 251.357498
-452.000000 -172.903621 249.962264
-452.000000 -174.336563 248.567031
-452.000000 -175.769505 247.171797
-452.000000 -177.202448 245.776564
-452.000000 -178.635390 244.381331
-452.000000 -180.068332 242.986097
-452.000000 -181.501275 241.590864
-452.000000 -182.934217 240.195631
-452.000000 -184.367160 238.800397
-452.000000 -185.800102 237.405164
-452.000000 -187.233044 236.009930
-452.000000 -188.665987 234.614697
-452.000000 -190.098929 233.219464
-452.000000 -191.531871 231.824230
-452.000000 -192.964814 230.428997
-452.000000 -194.397756 229.033764
-452.000000 -195.830699 227.638530
-452.000000 -197.263641 226.243297
-452.000000 -198.696583 224.848064
-452.000000 -200.129526 223.452830
-452.000000 -201.562468 222.057597
-452.000000 -202.995410 220.662363
-452.000000 -204.428353 219.267130
-452.000000 -205.861295 217.871897
-452.000000 -207.294238 216.476663
-452.000000 -208.727180 215.081430
-452.000000 -210.160122 213.686197
-452.000000 -211.593065 212.290963
-452.000000 -213.026007 210.895730
-452.000000 -214.458950 209.500497
-452.000000 -216.000000 208.000000
-452.000000 -216.364179 206.033436
-452.000000 -216.728357 204.066872
-452.000000 -217.092536 202.100308
-452.000000 -217.456714 200.133744
-452.000000 -217.820893 198.167180
-452.000000 -218.185071 196.200616
-452.000000 -218.549250 194.234052
-452.000000 -218.913428 192.267488
-452.000000 -219.277607 190.300924
-452.000000 -219.641785 188.334360
-452.000000 -220.005964 186.367796
-452.000000 -220.370142 184.401232
-452.000000 -220.734321 182.434668
-452.000000 -221.098499 180.468104
-452.000000 -221.462678 178.501540
-452.000000 -221.826856 176.534976
-452.000000 -222.191035 174.568412
-452.000000 -222.555213 172.601848
-452.000000 -222.919392 170.635284
-452.000000 -223.283570 168.668720
-452.000000 -223.647749 166.702156
-452.000000 -224.011927 164.735592
-452.000000 -224.376106 162.769028
-452.000000 -224.740284 160.802464
-452.000000 -225.104463 158.835900
-452.000000 -225.468642 156.869336
-452.000000 -225.832820 154.902772
-452.000000 -226.196999 152.936208
-452.000000 -226.561177 150.969644
-452.000000 -226.925356 149.003080
-452.000000 -227.289534 147.036516
-452.000000 -227.653713 145.069952
-452.000000 -228.017891 143.103388
-452.000000 -228.382070 141.136824
-452.000000 -228.746248 139.170260
-452.000000 -229.110427 137.203696
-452.000000 -229.474605 135.237132
-452.000000 -229.838784 133.270568
-452.000000 -230.202962 131.304004
-452.000000 -230.567141 129.337440
-452.000000 -230.931319 127.370876
-452.000000 -231.295498 125.404312
-452.000000 -231.659676 123.437748
-452.000000 -232.023855 121.471184
-452.000000 -232.388033 119.504620
-452.000000 -232.752212 117.538056
-452.000000 -233.116390 115.571492
-452.000000 -233.480569 113.604928
-452.000000 -233.844747 111.638364
-452.000000 -234.208926 109.671800
-452.000000 -234.573105 107.705235
-452.000000 -234.937283 105.738671
-452.000000 -235.301462 103.772107
-452.000000 -235.665640 101.805543
-452.000000 -236.029819 99.838979
-452.000000 -236.393997 97.872415
-452.000000 -236.758176 95.905851
-452.000000 -237.122354 93.939287
-452.000000 -237.486533 91.972723
-452.000000 -237.850711 90.006159
-452.000000 -238.214890 88.039595
-452.000000 -238.579068 86.073031
-452.000000 -238.943247 84.106467
-452.000000 -239.307425 82.139903
-452.000000 -239.671604 80.173339
-452.000000 -240.035782 78.206775
-452.000000 -240.399961 76.240211
-452.000000 -240.764139 74.273647
-452.000000 -241.128318 72.307083
-452.000000 -241.492496 70.340519
-452.000000 -241.856675 68.373955
-452.000000 -242.220853 66.407391
-452.000000 -242.585032 64.440827
-452.000000 -242.949211 62.474263
-452.000000 -243.313389 60.507699
-452.000000 -243.677568 58.541135
-452.000000 -244.041746 56.574571
-452.000000 -244.405925 54.608007
-452.000000 -244.770103 52.641443
-452.000000 -245.134282 50.674879
-452.000000 -245.498460 48.708315
-452.000000 -245.862639 46.741751
-452.000000 -246.226817 44.775187
-452.000000 -246.590996 42.808623
-452.000000 -246.955174 40.842059
-452.000000 -247.319353 38.875495
-452.000000 -247.683531 36.908931
-452.000000 -248.047710 34.942367
-452.000000 -248.411888 32.975803
-452.000000 -248.776067 31.009239
-452.000000 -249.140245 29.042675
-452.000000 -249.504424 27.076111
-452.000000 -249.868602 25.109547
-452.000000 -250.232781 23.142983
-452.000000 -250.596959 21.176419
-452.000000 -250.961138 19.209855
-452.000000 -251.325316 17.243291
-452.000000 -251.689495 15.276727
-452.000000 -252.053674 13.310163
-452.000000 -252.417852 11.343599
-452.000000 -252.782031 9.377035
-452.000000 -253.146209 7.410471
-452.000000 -253.510388 5.443907
-452.000000 -253.874566 3.477343
-452.000000 -254.238745 1.510779
-452.000000 -254.602923 -0.455785
-452.000000 -254.967102 -2.422349
-452.000000 -255.331280 -4.388913
-452.000000 -256.000000 -8.000000
-450.078329 -256.542589 -8.113039
-448.156658 -257.085179 -8.226079
-446.234987 -257.627768 -8.339118
-444.313317 -258.170358 -8.452158
-442.391646 -258.712947 -8.565197
-440.469975 -259.255536 -8.678237
-438.548304 -259.798126 -8.791276
-436.626633 -260.340715 -8.904316
-434.704962 -260.883305 -9.017355
-432.783292 -261.425894 -9.130395
-430.861621 -261.968484 -9.243434
-428.939950 -262.511073 -9.356474
-427.018279 -263.053662 -9.469513
-425.096608 -263.596252 -9.582552
-423.174937 -264.138841 -9.695592
-421.253267 -264.681431 -9.808631
-419.331596 -265.224020 -9.921671
-417.409925 -265.766609 -10.034710
-415.488254 -266.309199 -10.147750
-413.566583 -266.851788 -10.260789
-411.644912 -267.394378 -10.373829
-409.723242 -267.936967 -10.486868
-407.801571 -268.479557 -10.599908
-405.879900 -269.022146 -10.712947
-403.958229 -269.564735 -10.825987
-402.036558 -270.107325 -10.939026
-400.114887 -270.649914 -11.052065
-398.193217 -271.192504 -11.165105
-396.271546 -271.735093 -11.278144
-394.349875 -272.277682 -11.391184
-392.428204 -272.820272 -11.504223
-390.506533 -273.362861 -11.617263
-388.584862 -273.905451 -11.730302
-386.663192 -274.448040 -11.843342
-384.741521 -274.990629 -11.956381
-382.819850 -275.533219 -12.069421
-380.898179 -276.075808 -12.182460
-378.976508 -276.618398 -12.295500
-377.054837 -277.160987 -12.408539
-375.133166 -277.703577 -12.521578
-373.211496 -278.246166 -12.634618
-371.289825 -278.788755 -12.747657
-369.368154 -279.331345 -12.860697
-367.446483 -279.873934 -12.973736
-365.524812 -280.416524 -13.086776
-363.603141 -280.959113 -13.199815
-361.681471 -281.501702 -13.312855
-359.759800 -282.044292 -13.425894
-357.838129 -282.586881 -13.538934
-355.916458 -283.129471 -13.651973
-353.994787 -283.672060 -13.765013
-352.073116 -284.214649 -13.878052
-350.151446 -284.757239 -13.991091
-348.229775 -285.299828 -14.104131
-346.308104 -285.842418 -14.217170
-344.386433 -286.385007 -14.330210
-342.464762 -286.927597 -14.443249
-340.543091 -287.470186 -14.556289
-338.621421 -288.012775 -14.669328
-336.699750 -288.555365 -14.782368
-334.778079 -289.097954 -14.895407
-332.856408 -289.640544 -15.008447
-330.934737 -290.183133 -15.121486
-329.013066 -290.725722 -15.234526
-327.091396 -291.268312 -15.347565
-325.169725 -291.810901 -15.460604
-323.248054 -292.353491 -15.573644
-321.326383 -292.896080 -15.686683
-319.404712 -293.438670 -15.799723
-317.483041 -293.981259 -15.912762
-315.561371 -294.523848 -16.025802
-313.639700 -295.066438 -16.138841
-311.718029 -295.609027 -16.251881
-309.796358 -296.151617 -16.364920
-307.874687 -296.694206 -16.477960
-305.953016 -297.236795 -16.590999
-304.031345 -297.779385 -16.704039
-302.109675 -298.321974 -16.817078
-300.188004 -298.864564 -16.930117
-298.266333 -299.407153 -17.043157
-296.344662 -299.949742 -17.156196
-294.422991 -300.492332 -17.269236
-292.501320 -301.034921 -17.382275
-290.579650 -301.577511 -17.495315
-288.657979 -302.120100 -17.608354
-286.736308 -302.662690 -17.721394
-284.814637 -303.205279 -17.834433
-282.892966 -303.747868 -17.947473
-280.971295 -304.290458 -18.060512
-279.049625 -304.833047 -18.173551
-277.127954 -305.375637 -18.286591
-275.206283 -305.918226 -18.399630
-273.284612 -306.460815 -18.512670
-271.362941 -307.003405 -18.625709
-269.441270 -307.545994 -18.738749
-267.519600 -308.088584 -18.851788
-265.597929 -308.631173 -18.964828
-263.676258 -309.173762 -19.077867
-261.754587 -309.716352 -19.190907
-259.832916 -310.258941 -19.303946
-257.911245 -310.801531 -19.416986
-255.989575 -311.344120 -19.530025
-254.067904 -311.886710 -19.643064
-252.146233 -312.429299 -19.756104
-250.224562 -312.971888 -19.869143
-248.302891 -313.514478 -19.982183
-246.381220 -314.057067 -20.095222
-244.459550 -314.599657 -20.208262
-242.537879 -315.142246 -20.321301
-240.616208 -315.684835 -20.434341
-238.694537 -316.227425 -20.547380
-236.772866 -316.770014 -20.660420
-234.851195 -317.312604 -20.773459
-232.929524 -317.855193 -20.886499
-231.007854 -318.397783 -20.999538
-229.086183 -318.940372 -21.112577
-227.164512 -319.482961 -21.225617
-225.242841 -320.025551 -21.338656
-223.321170 -320.568140 -21.451696
-221.399499 -321.110730 -21.564735
-219.477829 -321.653319 -21.677775
-217.556158 -322.195908 -21.790814
-215.634487 -322.738498 -21.903854
-213.712816 -323.281087 -22.016893
-211.791145 -323.823677 -22.129933
-209.869474 -324.366266 -22.242972
-207.947804 -324.908855 -22.356012
-206.026133 -325.451445 -22.469051
-204.104462 -325.994034 -22.582090
-202.182791 -326.536624 -22.695130
-200.261120 -327.079213 -22.808169
-198.339449 -327.621803 -22.921209
-196.417779 -328.164392 -23.034248
-194.496108 -328.706981 -23.147288
-192.574437 -329.249571 -23.260327
-190.652766 -329.792160 -23.373367
-188.731095 -330.334750 -23.486406
-186.809424 -330.877339 -23.599446
-184.887754 -331.419928 -23.712485
-182.966083 -331.962518 -23.825525
-181.044412 -332.505107 -23.938564
-179.122741 -333.047697 -24.051603
-177.201070 -333.590286 -24.164643
-175.279399 -334.132875 -24.277682
-173.357729 -334.675465 -24.390722
-171.436058 -335.218054 -24.503761
-169.514387 -335.760644 -24.616801
-167.592716 -336.303233 -24.729840
-165.671045 -336.845823 -24.842880
-163.749374 -337.388412 -24.955919
-161.827703 -337.931001 -25.068959
-159.906033 -338.473591 -25.181998
-157.984362 -339.016180 -25.295038
-156.062691 -339.558770 -25.408077
-154.141020 -340.101359 -25.521116
-152.219349 -340.643948 -25.634156
-150.297678 -341.186538 -25.747195
-148.376008 -341.729127 -25.860235
-146.454337 -342.271717 -25.973274
-144.532666 -342.814306 -26.086314
-142.610995 -343.356896 -26.199353
-140.689324 -343.899485 -26.312393
-138.767653 -344.442074 -26.425432
-136.845983 -344.984664 -26.538472
-134.924312 -345.527253 -26.651511
-133.002641 -346.069843 -26.764551
-131.080970 -346.612432 -26.877590
-129.159299 -347.155021 -26.990629
-127.237628 -347.697611 -27.103669
-125.315958 -348.240200 -27.216708
-123.394287 -348.782790 -27.329748
-121.472616 -349.325379 -27.442787
-119.550945 -349.867968 -27.555827
-117.629274 -350.410558 -27.668866
-115.707603 -350.953147 -27.781906
-112.000000 -352.000000 -28.000000
-110.758594 -353.568092 -28.000000
-109.517188 -355.136183 -28.000000
-108.275782 -356.704275 -28.000000
-107.034376 -358.272367 -28.000000
-105.792971 -359.840458 -28.000000
-104.551565 -361.408550 -28.000000
-103.310159 -362.976642 -28.000000
-102.068753 -364.544733 -28.000000
-100.827347 -366.112825 -28.000000
-99.585941 -367.680916 -28.000000
-98.344535 -369.249008 -28.000000
-97.103129 -370.817100 -28.000000
-95.861723 -372.385191 -28.000000
-94.620318 -373.953283 -28.000000
-93.378912 -375.521375 -28.000000
-92.137506 -377.089466 -28.000000
-90.896100 -378.657558 -28.000000
-89.654694 -380.225650 -28.000000
-88.413288 -381.793741 -28.000000
-87.171882 -383.361833 -28.000000
-85.930476 -384.929925 -28.000000
-84.689070 -386.498016 -28.000000
-83.447665 -388.066108 -28.000000
-82.206259 -389.634200 -28.000000
-80.964853 -391.202291 -28.000000
-79.723447 -392.770383 -28.000000
-78.482041 -394.338475 -28.000000
-77.240635 -395.906566 -28.000000
-75.999229 -397.474658 -28.000000
-74.757823 -399.042749 -28.000000
-73.516417 -400.610841 -28.000000
-72.275012 -402.178933 -28.000000
-71.033606 -403.747024 -28.000000
-69.792200 -405.315116 -28.000000
-68.550794 -406.883208 -28.000000
-67.309388 -408.451299 -28.000000
-66.067982 -410.019391 -28.000000
-64.826576 -411.587483 -28.000000
-63.585170 -413.155574 -28.000000
-62.343764 -414.723666 -28.000000
-61.102359 -416.291758 -28.000000
-59.860953 -417.859849 -28.000000
-58.619547 -419.427941 -28.000000
-57.378141 -420.996033 -28.000000
-56.136735 -422.564124 -28.000000
-54.895329 -424.132216 -28.000000
-53.653923 -425.700307 -28.000000
-52.412517 -427.268399 -28.000000
-51.171111 -428.836491 -28.000000
-49.929706 -430.404582 -28.000000
-48.688300 -431.972674 -28.000000
-47.446894 -433.540766 -28.000000
-46.205488 -435.108857 -28.000000
-44.964082 -436.676949 -28.000000
-43.722676 -438.245041 -28.000000
-42.481270 -439.813132 -28.000000
-41.239864 -441.381224 -28.000000
-39.998458 -442.949316 -28.000000
-38.757053 -444.517407 -28.000000
-37.515647 -446.085499 -28.000000
